ply
format ascii 1.0
comment Created by Open3D
element vertex 695
property double x
property double y
property double z
property double nx
property double ny
property double nz
property uchar red
property uchar green
property uchar blue
end_header
-0.328394 0.397477 -0.438378 -0.501507 -0.730339 -0.463784 49 44 38
-0.349354 0.424913 -0.488489 -0.639748 -0.768479 0.0127963 177 154 120
-0.393209 0.463898 -0.438873 -0.49665 -0.801204 0.333783 20 13 7
-0.401949 0.470628 -0.435463 -0.489084 -0.786489 0.377137 22 16 8
-0.078127 -0.109427 -0.437278 0.216452 0.0309207 0.975803 59 84 149
0.246418 -0.104549 -0.498354 -0.101227 -0.994409 -0.0300578 79 75 76
0.500374 -0.393528 -0.545695 -0.18668 0.235663 0.953737 161 157 153
-0.0402578 0.105646 -0.114884 -0.715763 -0.693312 0.0836779 169 177 187
0.539371 -0.322541 -0.651835 -0.982918 -0.0532837 -0.176162 63 63 61
0.254846 -0.104105 -0.332292 -0.672396 -0.740009 0.0164417 241 239 250
0.351497 -0.179539 -0.599449 -0.625231 -0.763705 0.160751 7 7 5
0.312872 -0.159813 -0.576687 -0.702255 0.390368 0.595358 30 29 28
0.267439 -0.0970996 -0.509691 0.0111068 -0.926295 -0.376635 38 37 38
0.082233 0.0685883 -0.55332 -0.68543 -0.727494 0.030632 156 139 117
0.0752488 0.0752858 -0.551855 -0.678217 -0.733268 0.0483717 149 132 113
0.268117 -0.109886 -0.0386454 -0.701907 -0.712026 0.0185558 226 228 238
0.43073 -0.262767 -0.564262 -0.501454 -0.850894 -0.156601 159 155 158
0.185013 -0.070789 0.0592572 -0.440566 -0.897606 -0.0143176 50 50 52
0.0724793 0.077503 -0.557853 -0.629376 -0.774731 0.0606546 128 117 91
-0.012178 0.136827 -0.519633 -0.960817 -0.22969 -0.155152 11 10 7
-0.0126153 0.146327 -0.534725 -0.896442 -0.440409 0.0493063 17 15 10
0.268919 -0.120377 -1.15293 0.258805 -0.159075 0.952741 167 165 170
-0.0313466 0.163806 -0.528114 -0.579787 -0.811607 0.0717015 140 127 107
-0.0395442 0.168162 -0.525733 -0.575292 -0.81402 0.0800669 149 134 112
0.145923 -0.0482209 -0.254863 -0.623996 -0.779436 0.0557526 249 250 255
-0.0701009 0.192377 -0.517159 -0.578355 -0.81541 0.0247282 171 155 130
0.355919 -0.251692 -1.08524 -0.740446 0.648423 0.17688 154 153 151
-0.0782337 0.19872 -0.514552 -0.640367 -0.767696 0.0239438 175 159 135
-0.0850079 0.206484 -0.513014 -0.672364 -0.740221 0.000194048 134 123 105
0.488253 -0.363661 -0.933565 0.0469759 -0.0939997 0.994463 16 16 16
-0.0994013 0.219857 -0.510788 -0.529783 -0.844572 -0.0776406 23 18 14
0.237103 -0.104826 -1.14165 0.0859088 -0.12986 0.987804 81 80 87
-0.123512 0.231126 -0.494849 -0.669171 -0.743061 -0.00843025 43 39 33
0.165001 -0.0238429 -0.545858 -0.935562 -0.13282 -0.327235 38 38 38
-0.226057 0.323669 -0.37137 -0.676873 -0.735965 0.0141103 164 155 136
-0.202659 0.306283 -0.488507 -0.754515 -0.654842 0.0434625 88 72 63
-0.215698 0.315744 -0.483655 -0.613031 -0.785935 0.0806195 176 159 135
-0.220049 0.321317 -0.481669 -0.616121 -0.785404 0.0594601 52 43 32
0.241225 -0.111511 -0.517156 0.130084 -0.957803 0.256304 223 222 222
-0.227422 0.324817 -0.480427 -0.609031 -0.79226 0.0374934 113 100 85
-0.22774 0.325262 -0.473339 -0.615543 -0.787758 0.0233317 183 165 137
-0.112241 -0.00975026 -0.431939 -0.352352 -0.355002 0.865922 39 82 160
0.0917358 -0.0172402 -0.557091 0.618667 0.404744 0.673375 43 45 42
-0.266011 0.358134 -0.46882 -0.6214 -0.783492 -0.00149824 177 153 121
-0.0347507 0.144973 -0.478817 -0.900188 -0.382775 -0.207713 13 12 9
-0.281637 0.369926 -0.464394 -0.616758 -0.786729 -0.0258335 171 149 114
0.0525485 0.063005 -0.587173 0.966005 -0.192352 0.172729 23 24 21
0.425103 -0.237014 -0.613383 0.124495 -0.984012 -0.127362 45 45 48
0.388042 -0.237804 -0.579457 0.400176 0.567143 0.719867 6 6 8
-0.192325 0.277831 -0.543184 -0.735734 -0.654616 -0.173703 24 23 19
-0.0155781 -0.379206 -0.457525 -0.146362 0.26371 0.953433 53 42 50
0.134946 -0.0317709 -0.435547 -0.186598 -0.897919 -0.398651 113 113 111
0.31802 -0.160636 -0.581277 0.351997 0.332147 0.875087 114 113 110
-0.313769 -0.186279 -0.410037 0.128981 -0.171671 0.976674 56 54 61
0.224491 -0.0880378 -0.549754 -0.609334 -0.749405 -0.259046 121 122 122
0.422072 -0.31066 -0.922723 0.0759894 -0.0981033 0.992271 190 190 192
0.183383 -0.0585454 -0.540874 -0.3896 -0.772609 -0.501286 19 19 17
0.50354 -0.395939 -0.391782 -0.72405 0.531269 -0.439892 26 26 26
0.16203 -0.0636574 -0.514933 -0.87327 -0.244017 -0.421729 6 5 5
0.150728 -0.0512262 -0.24996 -0.615211 -0.787531 0.0361977 100 102 107
-0.069265 0.192848 -0.51173 -0.595314 -0.803457 -0.00759632 112 101 84
-0.154326 0.251156 -0.479858 -0.870947 -0.484407 0.0824618 52 48 43
-0.242064 0.338211 -0.470185 -0.654419 -0.754782 0.0451566 184 162 131
-0.323407 0.390628 -0.438 -0.607049 -0.648844 -0.458795 30 27 21
0.603689 -0.338492 -0.852301 -0.829497 -0.36333 -0.424177 66 66 67
-0.404572 0.479755 -0.435991 -0.445853 -0.8296 0.336122 22 20 10
0.127989 -0.00640096 -0.443915 -0.873706 -0.313404 0.372043 18 20 19
0.530235 -0.329234 -0.633058 -0.889082 -0.116989 -0.442547 39 40 38
-0.0886825 -0.253476 -0.450397 0.0996523 -0.10755 0.989193 7 2 46
-0.283808 0.370154 -0.377584 -0.308142 -0.950841 0.0308118 69 69 62
0.099661 0.0515505 -0.537325 -0.665916 -0.745825 -0.0173583 137 122 106
0.0553678 0.0691339 -0.594869 0.799979 -0.508375 0.318729 64 65 61
0.425398 -0.234335 -0.618953 0.0645709 -0.988437 -0.137196 20 20 22
-0.0867613 0.183928 -0.0382583 -0.647781 -0.760756 0.0403684 233 237 241
-0.204575 0.0344867 -0.418043 0.379723 0.191927 0.904972 36 38 42
0.315987 -0.140383 -0.586831 -0.692194 -0.264176 0.671624 126 111 98
0.299781 -0.129002 -0.581701 -0.0885421 -0.996023 -0.00994491 169 151 123
-0.0875925 -0.219256 -0.442816 0.0556041 -0.121112 0.99108 36 20 34
0.257475 -0.157779 -0.521274 0.834649 -0.488404 0.254603 165 132 35
0.346602 -0.358035 -0.92144 0.137488 -0.117515 0.983508 202 203 203
0.266897 -0.145805 -0.474823 0.53051 -0.837329 -0.132062 200 172 73
0.247166 -0.101735 -0.562118 -0.417395 -0.904256 0.0900172 48 49 50
0.630494 -0.0724779 -0.405145 0.363091 -0.769033 0.526073 18 18 16
-0.0207089 -0.0507394 -0.452719 0.30881 0.278496 0.909438 117 118 120
-0.0973073 0.214215 -0.582777 -0.636968 -0.768161 0.0648201 184 178 168
0.235709 -0.107465 -0.480034 -0.382355 -0.867352 -0.318598 59 57 58
0.236816 -0.0995067 -0.553944 -0.466861 -0.832388 -0.298616 132 134 134
0.218307 -0.0635372 -0.568621 -0.304039 -0.419031 0.855554 48 50 49
0.193518 -0.0564489 -0.55254 -0.57639 -0.784066 -0.230252 40 40 40
0.186708 -0.0573062 -0.544925 -0.447427 -0.787423 -0.423998 27 29 28
0.243403 -0.0908759 -0.0422202 -0.530418 -0.658212 -0.534241 50 48 63
0.135135 0.0223401 -0.561469 -0.848049 -0.529846 0.00868809 48 44 39
0.11131 0.0402582 -0.554773 -0.613687 -0.788243 0.0454109 81 73 63
0.110256 0.0166338 -0.607197 0.751521 -0.654378 0.0837044 47 48 43
0.104101 0.0463411 -0.552658 -0.678929 -0.733731 0.0263266 79 67 58
-0.061447 0.186713 -0.512989 -0.596278 -0.802715 -0.0100578 122 111 93
0.119283 0.0342342 -0.369769 -0.506593 -0.862178 -0.00356688 149 139 128
0.505576 -0.0685293 -0.762546 -0.827954 -0.559678 0.0353988 17 15 17
0.542402 -0.277429 -0.695732 -0.859349 0.500101 0.106855 48 47 49
-0.257176 0.350498 -0.464922 -0.640442 -0.768007 -2.89249e-05 179 156 125
0.0925259 -0.000846122 -0.180171 -0.575542 -0.815075 0.0663587 107 111 116
0.537806 -0.308161 -0.656291 -0.994188 -0.0104613 -0.107145 22 23 22
-0.27278 0.362491 -0.46053 -0.609015 -0.793151 -0.00352945 174 151 117
0.0560223 -0.242628 -0.466702 0.330281 -0.0740584 0.940973 61 55 73
-0.277014 0.364735 -0.574359 -0.50869 -0.809954 0.291905 48 41 39
0.529299 -0.353466 -0.601266 -0.938437 0.344036 -0.0312267 165 162 157
0.0966997 -0.00285963 0.0689815 -0.605362 -0.788622 -0.107764 113 113 117
-0.0806216 0.168041 -0.230479 -0.944493 -0.315629 0.0911621 48 51 54
0.151309 -0.197928 -1.14339 0.104991 -0.0975376 0.989678 29 19 24
-0.273334 0.363425 -0.467208 -0.629424 -0.777062 0.000810073 175 152 117
0.539412 -0.301596 -0.662904 -0.958618 0.281068 0.0452979 31 31 32
0.284724 -0.139598 -0.560328 0.634741 -0.690903 0.34606 185 163 120
0.0571943 0.030754 0.095482 -0.613002 -0.782957 -0.105858 103 103 105
0.282754 -0.113923 -0.577125 0.63911 -0.691704 0.336279 62 53 48
-0.0319112 0.16262 -0.572104 -0.707271 -0.693286 0.138287 35 30 25
0.246252 -0.103704 -0.554305 -0.148517 -0.971896 -0.182648 165 167 168
0.0602238 0.0541976 -0.413357 -0.64149 -0.742619 0.192374 17 16 17
0.244426 -0.352597 -1.15749 -0.367199 0.289514 0.883938 178 177 175
0.228653 -0.0729779 -0.563339 -0.78826 0.0308248 0.614569 63 63 62
0.203323 -0.0622097 -0.548802 0.211611 -0.970157 -0.118393 30 31 31
0.167139 -0.0493843 0.0805953 -0.625009 -0.772528 -0.112093 50 50 51
0.241164 -0.294922 -1.17107 -0.0819394 -0.517798 0.85157 177 175 176
0.190709 -0.0680909 -0.532823 -0.152617 -0.849976 -0.504231 57 59 57
-0.244261 0.314091 -0.153094 -0.653728 -0.756405 0.0221596 226 230 231
0.22291 -0.0699067 -0.36035 -0.606499 -0.7159 -0.3459 203 204 208
0.0529717 0.0942747 -0.544437 -0.523758 -0.840373 -0.139468 15 15 13
-0.301355 0.378315 -0.565592 -0.9072 -0.415583 -0.0654135 36 32 28
0.531983 -0.320837 -0.641276 -0.866514 -0.055547 -0.496052 54 56 54
0.378078 -0.237016 -0.566 -0.757998 -0.619943 0.202754 116 118 117
0.437614 -0.196707 -0.911422 -0.479094 -0.0366492 0.876998 159 159 163
0.3157 -0.133086 -0.59219 -0.605 -0.617138 0.503106 165 146 125
0.288358 -0.114488 -0.587698 -0.274028 -0.954413 0.118337 194 182 165
-0.0832748 -0.276191 -0.450997 0.0747577 -0.105108 0.991647 84 71 93
0.223082 -0.0690766 -0.56667 -0.332537 -0.248574 0.909742 83 82 83
0.241056 -0.323934 -1.16121 -0.00442157 0.0942009 0.995543 114 115 112
0.218397 -0.058256 -0.563713 -0.263539 -0.963143 0.0538783 49 49 47
0.369386 -0.195032 0.00489584 -0.61852 -0.785081 0.0328776 249 248 253
-0.052036 0.166337 -0.61358 -0.409709 0.223522 0.884407 27 25 22
0.0990904 0.0532327 -0.551074 -0.693348 -0.720603 0.000351606 141 127 110
-0.0180175 0.0870261 -0.172193 -0.697428 -0.703597 0.136183 228 240 250
-0.0117957 0.129494 -0.512252 -0.963077 -0.238347 -0.125197 12 11 8
-0.0296797 0.16367 -0.522212 -0.640704 -0.766694 -0.0409795 43 37 30
-0.250956 0.315234 -0.253074 -0.670886 -0.741547 -0.00451987 223 224 226
-0.0838017 0.204559 -0.505979 -0.640505 -0.764627 -0.0714068 25 19 9
0.395979 -0.237337 -0.525762 -0.780587 -0.617546 0.0965411 36 36 37
-0.318633 0.381845 -0.43241 -0.346066 -0.789244 -0.507279 20 21 11
0.499421 -0.383708 -0.547168 -0.432066 0.373303 0.820953 170 166 163
0.52548 -0.34248 -0.606635 -0.87689 -0.439333 -0.195066 85 85 80
0.0979093 0.000944425 0.066008 -0.596253 -0.79309 -0.12446 126 126 130
-0.0789717 0.163483 -0.223724 -0.977731 -0.184607 0.0998101 49 51 55
0.541003 -0.294827 -0.667677 -0.917704 0.376576 0.126528 40 39 42
0.337018 -0.162909 -0.516441 -0.964059 -0.197767 0.177423 9 7 7
0.393064 -0.244659 -0.570136 -0.443643 -0.865005 -0.234408 26 25 28
0.428414 -0.249828 -0.479027 -0.503954 -0.653546 0.564719 43 37 39
0.379787 -0.232454 -0.569044 -0.694925 -0.714028 0.0851068 35 35 36
-0.168196 0.247508 -0.0807973 -0.674308 -0.738351 0.0121287 234 238 241
0.113579 -0.179425 -0.483573 0.0867526 -0.71279 0.695991 62 113 181
0.277697 -0.113945 -0.572773 0.277789 -0.889684 0.362347 70 62 56
-0.148996 0.230903 -0.457724 -0.883039 0.0604163 0.465394 27 23 14
0.507637 -0.255506 -0.386617 -0.517906 -0.265902 0.813062 127 125 125
0.199179 -0.0657957 -0.539733 0.00868257 -0.974192 -0.225553 73 76 74
0.54115 -0.355352 -0.466781 -0.579918 -0.814672 -0.00203864 68 71 72
0.158254 -0.042164 -0.522542 -0.909735 -0.202125 -0.362668 37 38 38
0.156926 -0.00454626 -0.54791 -0.903325 -0.339034 -0.262792 38 36 33
0.23785 -0.114177 -0.667803 -0.452995 -0.81083 -0.370608 57 56 61
0.543137 -0.285156 -0.67346 -0.905397 0.389682 0.168534 48 45 52
0.0978787 0.0070829 0.0553745 -0.462476 -0.883633 -0.0728664 67 67 72
0.543005 -0.288606 -0.674939 -0.868021 0.460056 0.186781 45 43 48
0.336589 -0.162981 -0.519318 -0.936927 -0.153608 0.313963 25 24 23
0.419531 -0.102305 -1.1516 -0.0268057 -0.018798 0.999464 54 52 53
-0.123682 0.0097918 -0.431427 -0.486427 0.0112572 0.873649 10 61 143
0.0502837 0.0544201 -0.580352 -0.965695 -0.0951056 -0.241638 32 33 30
0.4204 -0.237449 -0.604712 0.159601 -0.980222 -0.117012 38 37 42
0.257623 -0.155169 -0.518791 -0.860371 0.490112 -0.139831 163 134 30
-0.0307358 0.160927 -0.564909 -0.662468 -0.746564 0.0614648 81 76 69
0.242745 -0.106936 -0.545461 -0.017412 -0.950334 -0.310745 211 212 214
0.237301 -0.0984539 0.0112679 -0.723375 -0.689942 0.026623 13 13 17
0.0619195 0.0235811 -0.0782137 -0.571768 -0.815386 0.0907053 177 183 187
-0.0131077 -0.0340918 -0.46151 0.429279 0.394626 0.812398 28 28 28
0.434794 -0.264389 -0.917551 0.175511 -0.0851335 0.98079 85 85 86
0.239117 -0.101244 -0.496811 -0.295065 -0.954659 -0.0395445 45 44 45
-0.0848004 -0.0228469 -0.427139 -0.37803 -0.852741 0.360453 142 149 160
0.233509 -0.107513 -0.537349 -0.477218 -0.78898 -0.387007 211 213 215
0.17608 -0.083007 -0.504127 0.00223093 -0.897708 -0.440584 29 31 30
-0.210286 0.281267 -0.149044 -0.644209 -0.763484 0.0456871 206 210 214
0.11965 0.035 -0.514218 -0.672261 -0.739013 -0.0438858 92 83 77
0.561372 -0.284045 -0.897167 -0.788174 -0.46899 0.398535 58 58 60
0.153248 -0.0602105 -0.502428 -0.947637 -0.166166 -0.272713 36 38 37
0.155171 -0.0559293 -0.507646 -0.916186 -0.208076 -0.342503 38 40 39
0.168422 -0.0113462 -0.560523 -0.890136 -0.424183 -0.166512 38 38 38
0.0917135 0.0599151 -0.549003 -0.69417 -0.719783 0.00628983 150 135 116
0.0495544 0.0933722 -0.537244 -0.383448 -0.866506 -0.319587 12 11 9
0.56591 0.0146475 -1.08087 -0.935641 0.339315 -0.0971612 35 31 28
0.0433876 0.0863522 -0.525472 0.0702047 -0.888159 -0.454142 13 11 12
-0.234672 0.331433 -0.376443 -0.668179 -0.743934 -0.00993029 94 84 66
0.040979 0.0829098 -0.519698 -0.00572355 -0.861216 -0.508208 12 10 11
-0.165527 0.239462 -0.241184 -0.603807 -0.797029 -0.0127145 222 226 235
-0.144895 0.242314 -0.477611 -0.438322 -0.895208 -0.0804746 72 67 63
-0.150896 0.243539 -0.468215 -0.868342 -0.495501 -0.0214726 33 29 22
0.342263 -0.173714 -0.0597255 -0.646885 -0.762557 0.00685759 248 247 252
0.503869 -0.370798 -0.554846 -0.777564 0.602369 0.180406 163 159 155
-0.079928 0.176255 -0.0763411 -0.669159 -0.743071 0.0085201 227 231 234
0.54329 -0.280776 -0.679764 -0.893844 0.399345 0.203877 49 47 53
0.329647 -0.16318 -0.0412575 -0.634311 -0.773073 -0.00257856 248 247 252
-0.149155 -0.152855 -0.429599 0.0990389 -0.128229 0.986787 23 22 28
0.382808 -0.226263 -0.57573 -0.451589 0.421409 0.786436 43 43 45
-0.0122292 0.0902796 0.0118831 -0.692121 -0.469487 -0.548224 124 125 127
0.520344 -0.347344 -0.430124 -0.678188 -0.704785 0.20818 24 22 24
0.171623 -0.090646 -0.488854 0.108814 -0.903139 -0.41533 28 29 29
0.00633579 0.0653781 -0.214714 -0.645573 -0.762304 0.0461393 49 52 56
-0.287477 0.376384 -0.551382 -0.61319 -0.789344 0.0305651 25 25 20
0.152864 -0.0593656 -0.496555 -0.98701 -0.0984606 -0.126951 36 37 38
0.165346 -0.0022824 -0.563691 -0.784019 -0.619842 0.0333172 22 20 17
-0.124954 0.209183 -0.24508 -0.599519 -0.800155 0.0181682 218 223 231
0.135296 0.0135805 -0.541441 -0.926954 -0.370864 0.0567199 37 36 33
0.120958 0.0342848 -0.550672 -0.62329 -0.781693 0.0215972 33 28 21
-0.193483 0.138569 -0.458505 0.431684 0.541214 0.721621 28 28 28
0.493697 -0.438811 -0.482185 -0.792834 0.533916 0.29385 132 135 137
-0.0111505 0.11681 -0.493373 -0.973221 -0.226983 -0.0363243 16 15 12
-0.0142972 0.128131 -0.499864 -0.931982 -0.352053 -0.0864141 18 17 13
0.16352 -0.0721526 -0.441363 0.355348 0.400663 0.84451 24 24 26
-0.135216 0.245061 -0.483927 -0.260629 -0.959663 0.105453 142 134 123
-0.137002 0.244198 -0.477716 -0.20719 -0.978245 -0.0104156 89 80 72
0.477638 -0.273798 -0.393854 -0.250464 -0.451629 0.856329 58 58 58
-0.303437 0.384152 -0.444466 -0.468884 -0.813654 -0.34368 11 0 0
-0.0958823 0.210122 -0.468046 -0.622531 -0.780187 0.061345 154 141 122
0.0241664 0.0531798 -0.0504914 -0.573768 -0.803113 -0.160626 111 116 120
-0.307267 0.371933 -0.424919 -0.3474 -0.899399 0.265318 22 16 9
0.512919 -0.338462 -0.459457 -0.680369 -0.693915 -0.235753 19 17 18
-0.232753 -0.0299601 -0.413742 0.105462 -0.0462493 0.993347 35 33 42
-0.319277 0.400781 -0.505238 -0.632112 -0.772872 0.0557096 174 151 117
0.0108239 -0.0914001 -0.447349 0.648929 0.469706 0.598555 120 122 124
-0.0957593 0.211389 -0.475047 -0.627444 -0.777565 0.0413034 98 87 76
-0.0169525 0.131371 -0.354869 -0.76132 0.241717 0.601635 26 30 32
0.522429 -0.318307 -0.625445 -0.897025 0.0192938 -0.441559 16 18 16
0.239267 -0.230999 -1.15437 0.0289315 -0.0561785 0.998001 185 183 184
0.412558 -0.241019 -0.590023 -0.223592 -0.900083 -0.373975 55 54 60
-0.301024 0.0403808 -0.395982 0.304517 -0.047154 0.951339 27 26 30
-0.0592145 0.18439 -0.498018 -0.611744 -0.79105 -0.00309515 79 71 60
0.387492 -0.227655 -0.575693 -0.667362 0.358113 0.65298 41 41 42
-0.160778 0.239446 -0.132817 -0.678815 -0.734305 -0.0023215 232 236 239
0.521435 -0.328119 -0.705685 -0.807251 -0.586296 0.0678385 237 233 233
0.328476 -0.177622 -0.557842 -0.355708 -0.918575 0.172314 92 91 87
0.324685 -0.173121 -0.55522 -0.419702 -0.891094 0.172634 181 178 174
0.23504 -0.109846 -0.532718 -0.30989 -0.916736 -0.252117 205 208 210
0.220137 -0.102132 -0.520579 -0.940686 -0.2486 0.230886 165 167 169
0.0959543 0.0302747 -0.0332787 -0.557359 -0.82006 0.129813 219 222 229
-0.302407 -0.211477 -0.422875 -0.222867 -0.122432 0.96713 30 30 34
0.222699 -0.0957043 -0.527504 -0.993411 0.0336443 -0.109558 168 169 169
-0.0664557 0.125779 -0.27405 -0.722771 -0.672191 -0.160505 54 53 61
0.195179 -0.0696792 -0.531018 0.0338596 -0.911405 -0.410114 72 75 72
0.513349 -0.375131 -0.63696 -0.937749 0.343632 -0.0504257 188 189 184
0.151983 -0.0643104 -0.490715 -0.984836 -0.144391 -0.0961769 35 36 37
-0.388645 0.452294 -0.472923 -0.667973 -0.735144 0.115653 180 164 134
0.0911821 0.0600357 -0.542791 -0.697228 -0.716322 -0.0274984 162 147 127
0.204953 -0.0829163 -0.416818 -0.0314136 0.556642 0.830158 8 8 10
0.44661 -0.0598757 -1.15208 -0.0430412 -0.0427376 0.998159 115 114 116
0.329564 -0.150224 -1.15176 0.0334871 -0.0973992 0.994682 154 152 157
0.165756 -0.0746656 -0.439604 0.537528 0.397118 0.743883 24 23 27
0.0841608 0.0669941 -0.540362 -0.723473 -0.689897 0.0250956 156 141 123
0.0773747 0.0731047 -0.537611 -0.68167 -0.730773 0.0360189 142 129 112
0.35112 -0.0760809 -1.14753 0.0460081 -0.229589 0.9722 133 134 133
0.276777 -0.101849 -0.56127 -0.14603 -0.8166 0.558426 130 121 115
-0.0442296 0.171646 -0.597462 -0.814208 -0.527726 0.242012 152 149 140
0.075045 0.0761285 -0.544088 -0.637033 -0.769655 0.0426704 144 128 112
0.175764 -0.325053 -1.15871 0.0251 -0.100349 0.994636 189 188 189
-0.02916 0.105205 -0.397924 -0.616733 -0.773115 0.148101 78 80 79
0.0533728 0.0911492 -0.536908 -0.421047 -0.846963 -0.324611 16 16 14
-0.243442 0.310904 -0.160453 -0.662156 -0.747349 0.0549431 228 230 232
0.287431 -0.287881 -1.15621 -0.31533 0.0282841 0.94856 171 169 169
0.0546571 0.0920405 -0.538565 -0.448541 -0.839 -0.308044 22 22 19
-0.310493 0.358295 -0.351157 -0.367961 -0.912188 -0.180327 35 34 32
0.510438 -0.339121 -0.437231 -0.796313 -0.602071 0.0582715 46 46 48
0.495857 -0.435656 -0.490297 -0.986951 0.141313 -0.0771913 134 139 143
-0.201253 0.11514 -0.439502 0.62492 0.336176 0.7046 138 138 138
-0.0105493 0.110012 -0.486603 -0.979098 -0.196461 -0.0526252 13 13 10
-0.0128553 0.122226 -0.492274 -0.95418 -0.295335 -0.0481471 19 17 13
-0.0173264 0.14998 -0.518753 -0.817409 -0.522799 -0.241916 15 14 11
-0.0601032 -0.30301 -0.4532 -0.0653117 -0.00693661 0.997841 132 106 134
-0.0754774 0.197691 -0.50293 -0.596 -0.801424 -0.0500385 20 12 4
-0.177383 0.265366 -0.574798 -0.369827 -0.836641 -0.404054 41 37 35
0.0788766 0.0691623 -0.515665 -0.456815 -0.795874 -0.397372 14 12 11
-0.0843199 0.202821 -0.499644 -0.625516 -0.77697 -0.071052 44 37 32
0.123531 -0.0175973 0.060465 -0.511766 -0.849334 -0.129337 47 48 50
-0.0907439 0.207648 -0.498167 -0.624893 -0.772944 -0.109849 151 140 126
0.563717 -0.262472 -0.315464 -0.650348 -0.104528 0.75241 20 18 21
0.35907 -0.193167 -0.317977 -0.480302 -0.870543 -0.107077 225 227 234
0.135792 -0.283924 -1.16829 0.00470222 0.275578 0.961267 189 186 187
-0.0908761 0.206925 -0.490104 -0.608953 -0.79308 -0.0141538 115 104 91
0.548383 -0.351196 -0.733706 -0.671288 -0.740892 0.0212604 234 228 230
-0.342959 0.421645 -0.506133 -0.600395 -0.799701 -0.00229392 178 156 119
-0.106397 0.221714 -0.492932 -0.571198 -0.820078 0.034702 93 87 80
-0.333973 -0.151674 -0.406649 0.0489767 -0.0378794 0.998081 46 43 52
-0.113795 0.227491 -0.490596 -0.58932 -0.80176 0.0994088 45 40 34
-0.142501 0.232573 -0.463007 -0.0496093 -0.893454 -0.446406 117 111 103
-0.145747 0.226704 -0.456794 0.626458 -0.569438 -0.53225 80 74 67
-0.348137 0.395961 -0.349728 -0.587472 -0.80833 -0.0384582 33 31 27
-0.2308 0.0378862 -0.417115 0.430928 0.0905516 0.897832 34 31 38
-0.164741 0.273808 -0.476412 -0.690272 -0.722739 0.034249 103 91 71
0.506413 -0.375611 -0.363527 -0.940094 0.340336 -0.0198761 24 23 26
0.0250315 0.0443311 -0.279366 -0.664043 -0.722653 0.191884 229 239 249
-0.180953 0.284115 -0.471107 -0.558894 -0.82735 0.0559474 169 152 126
0.280262 -0.132476 -0.725195 -0.798727 -0.601099 -0.0267357 33 35 34
0.0921035 -0.250155 -0.484099 0.487477 0.162026 0.857971 75 65 80
-0.225952 0.324204 -0.465636 -0.604886 -0.79631 -0.00185271 181 160 129
0.0994618 0.0080488 -0.393171 0.76198 -0.597055 0.250821 204 200 192
-0.256129 0.349912 -0.457651 -0.637914 -0.770108 -0.000276681 176 154 123
-0.263816 0.355862 -0.455257 -0.62758 -0.778516 0.00744292 174 153 122
0.349664 -0.184492 -0.235072 -0.629464 -0.776788 0.0193597 242 242 253
-0.270682 0.362622 -0.452794 -0.601262 -0.798454 -0.0308912 174 153 122
-0.306765 0.376193 -0.430329 -0.393348 -0.914379 0.0958609 26 19 13
0.499672 -0.43006 -0.498385 -0.925261 0.0675785 -0.373263 142 146 149
0.403686 -0.246291 -0.571873 -0.40891 -0.884999 -0.22264 57 56 63
0.385572 -0.207294 -0.00673095 -0.632862 -0.77287 0.0464571 249 248 253
0.390548 -0.222274 -0.584047 -0.670798 0.303692 0.67661 43 43 45
0.333229 -0.180554 -0.566287 -0.174352 -0.983958 0.0377802 66 65 61
-0.0286644 0.0911053 -0.219012 -0.688795 -0.721472 0.0709832 234 239 244
-0.0453987 -0.144979 -0.44462 0.187319 -0.00874235 0.98226 102 103 112
0.242974 -0.110037 -0.533334 0.160969 -0.978509 -0.128879 222 223 224
0.233854 -0.111965 -0.523804 -0.125924 -0.98849 0.0838495 208 209 211
0.270764 -0.320239 -1.15846 -0.237201 0.633685 0.736328 146 146 145
0.22597 -0.0889052 -0.534571 -0.985442 0.167214 -0.0307036 146 146 146
-0.00803101 0.0967085 0.00463319 -0.556136 -0.450338 -0.698504 68 70 69
0.174488 -0.0694582 -0.320488 -0.13112 -0.93256 -0.336361 52 55 58
-0.0442868 -0.0720278 -0.450579 0.144671 -0.0773958 0.986448 31 32 40
0.171297 -0.0952632 -0.481647 0.148897 -0.90144 -0.406492 31 32 32
0.134396 0.00569944 -0.534149 -0.977694 -0.152346 0.144585 24 24 22
0.181499 -0.0740994 -0.119157 -0.675108 -0.736389 -0.0442709 241 249 253
-0.221211 0.320818 -0.43872 -0.653189 -0.7524 -0.0850779 7 0 0
0.0499126 0.0874809 -0.528658 -0.269089 -0.842676 -0.466357 8 8 6
-0.0359492 0.169291 -0.514215 -0.618614 -0.777848 -0.110765 21 17 11
-0.140107 0.240145 -0.470166 -0.0974015 -0.981261 -0.166252 119 111 103
0.199867 -0.0552883 -0.0626593 -0.646745 -0.682074 0.341314 222 227 239
0.513489 -0.334446 -0.59877 -0.697362 -0.710669 -0.0929315 52 53 51
-0.0198624 0.125376 -0.353519 -0.594958 0.430968 0.678448 24 28 30
0.52812 -0.310117 -0.634045 -0.887492 0.17592 -0.425922 19 20 19
0.304873 -0.124894 -0.584632 -0.304536 -0.897417 0.31922 162 143 118
0.263626 -0.0876545 -0.41121 -0.160372 -0.79191 0.589203 126 117 106
0.276711 -0.12768 -0.54918 -0.982911 0.0491521 -0.177398 100 86 68
0.513255 -0.415078 -0.521631 -0.890241 0.390815 -0.233955 73 74 72
0.146768 0.00289974 -0.501148 -0.191121 -0.887543 -0.419213 63 58 55
0.198789 -0.0547837 -0.0687968 -0.415283 -0.702877 0.577498 180 186 196
0.511104 -0.333707 -0.595861 -0.6651 -0.74125 -0.0905085 46 47 46
0.252638 -0.103748 -0.547612 0.172023 -0.972654 -0.156051 109 110 111
-0.0276678 0.0949349 -0.182972 -0.652033 -0.749274 0.115934 196 203 209
-0.10293 0.220155 -0.378563 -0.761107 -0.610798 0.21827 165 152 126
-0.301617 -0.223337 -0.416461 -0.580524 -0.503456 0.63994 32 32 34
0.22927 -0.0828206 -0.540347 -0.969609 0.241794 -0.0373266 84 85 84
0.160073 -0.0428776 -0.335603 -0.609189 -0.506598 -0.610121 29 29 31
0.144621 -0.220137 -1.14592 0.134011 -0.105985 0.985296 190 191 191
0.131995 -0.0112891 -0.509949 -0.925062 0.379009 0.0247574 54 53 53
0.122086 0.0339384 -0.544369 -0.677192 -0.735733 -0.0103694 63 55 48
0.34209 -0.1725 -0.00895411 -0.634303 -0.77271 0.0240781 248 247 252
-0.0153963 0.135078 -0.49916 -0.930669 -0.349939 -0.106759 21 19 14
0.0872838 0.00307617 -0.210227 -0.595206 -0.802902 0.0328318 61 64 69
0.508865 -0.361239 -0.935264 0.155336 -0.138418 0.978116 202 203 205
-0.113184 0.226091 -0.483113 -0.607315 -0.778815 0.156893 133 124 110
0.391951 -0.213386 -0.00168123 -0.625107 -0.779569 0.0389109 249 248 253
0.386595 -0.19367 -0.402444 -0.765301 -0.408921 -0.497089 70 71 71
-0.220458 -0.0683227 -0.412434 0.0535465 -0.0332964 0.99801 25 27 30
0.528031 -0.402777 -0.54843 -0.180703 0.224734 0.957518 78 77 70
0.527501 -0.346297 -0.600103 -0.950096 -0.288699 -0.118196 159 158 153
-0.271822 0.363742 -0.40882 -0.647907 -0.749159 0.137759 140 120 92
0.519205 -0.31718 -0.617149 -0.913198 0.0626876 -0.402665 16 17 16
0.521441 -0.311008 -0.620816 -0.886658 0.221534 -0.405908 20 20 19
0.53845 -0.29755 -0.656643 -0.917937 0.393286 -0.0521384 41 39 44
-0.323004 0.366146 -0.327598 -0.621908 -0.77578 -0.106748 34 34 36
0.298286 -0.126812 -0.566463 0.232068 -0.972033 0.0360092 71 57 45
-0.0379972 0.165805 -0.34239 0.103676 -0.990849 -0.0864287 158 151 136
0.035764 -0.173007 -0.458075 0.199493 0.12703 0.971631 33 34 43
-0.350791 0.42521 -0.495746 -0.626557 -0.779188 0.0170611 181 161 125
0.130582 0.0233053 -0.531872 -0.863325 -0.503441 0.0348801 30 26 22
0.577994 -0.273755 -0.887978 -0.651327 -0.361845 0.666964 64 64 66
0.288272 -0.133754 -0.552118 0.411805 -0.866052 0.283497 60 46 34
0.262233 -0.0861539 -0.404494 -0.435272 -0.829438 0.350102 179 168 156
0.273306 -0.131771 -0.542805 -0.938692 0.149831 -0.310496 114 102 81
0.354193 -0.0700339 -1.14735 0.0786671 -0.135938 0.987589 132 132 130
0.312797 -0.431691 -0.926276 0.113011 -0.133178 0.984628 212 212 212
0.269832 -0.104735 -0.559957 -0.0342232 -0.855919 0.515977 150 145 142
0.0791289 0.0716454 -0.531557 -0.659691 -0.740007 -0.131138 152 139 122
0.152342 -0.0464398 -0.501812 -0.957662 -0.141685 -0.250616 34 34 36
0.142782 -0.0382842 -0.0858377 -0.575559 -0.796799 0.183963 225 233 235
0.158524 -0.021128 -0.530979 -0.943558 -0.0740092 -0.322834 34 34 35
0.0352605 0.0290183 -0.573257 0.830269 0.174782 0.529249 17 17 17
-0.247471 0.342053 -0.451522 -0.63517 -0.772304 0.0102812 177 156 125
0.498242 -0.0716121 -0.783806 -0.954287 0.0709306 0.290352 18 16 16
0.161318 -0.0205252 -0.472374 -0.411839 -0.828775 -0.378841 20 21 21
0.529233 -0.353548 -0.589101 -0.971436 0.236297 -0.0218236 166 165 160
0.324465 -0.139655 -0.581291 -0.891155 -0.151762 0.427564 30 22 18
0.179955 -0.0700142 -0.29232 0.305567 -0.951373 -0.0389518 62 63 67
0.485028 -0.408399 -0.614223 -0.679637 0.705166 -0.202076 131 131 129
0.286269 -0.109323 -0.569814 0.330589 -0.779888 0.531493 162 146 127
0.26925 -0.328029 -1.15452 -0.439661 0.511787 0.738087 75 75 72
0.235797 -0.0672075 -0.556176 -0.956601 -0.212189 0.199726 82 80 79
0.216122 -0.0612563 -0.544004 0.0163047 -0.925537 -0.378305 35 35 36
0.0921614 0.0582502 -0.535291 -0.708354 -0.705006 -0.0346642 96 81 68
-0.0365492 0.165392 -0.505207 -0.669399 -0.712002 -0.212035 20 17 11
-0.269558 0.361595 -0.445227 -0.580418 -0.808169 -0.0998883 170 154 125
-0.0187047 0.124355 -0.00324245 -0.585235 -0.605304 -0.539544 78 80 83
0.311949 -0.125544 -0.584021 -0.427734 -0.752076 0.501423 176 157 135
0.306475 -0.123657 -0.582404 -0.0504766 -0.946678 0.318202 164 147 123
0.26567 -0.141339 -0.526758 0.841478 -0.499329 0.206363 75 56 39
-0.16707 -0.0496504 -0.418061 0.0576493 0.114337 0.991768 59 58 67
0.178541 -0.0898618 -0.486869 0.108814 -0.903139 -0.41533 39 39 41
0.145102 0.000752235 -0.535807 0.239702 -0.951561 0.19255 49 45 42
0.0865752 0.0645228 -0.533622 -0.726341 -0.687334 0.000737352 160 146 125
0.12495 -0.0279926 -0.409365 -0.90655 -0.144004 -0.396774 12 11 11
0.496994 -0.424506 -0.493437 -0.939001 0.315888 -0.135982 156 161 162
0.061021 0.000885083 -0.570798 0.429563 0.69639 0.574906 66 66 66
0.516658 -0.332037 -0.594606 -0.683148 -0.72423 -0.0938047 52 51 50
-0.229705 0.296894 -0.214893 -0.643489 -0.765239 0.018229 223 224 228
0.51411 -0.331287 -0.58849 -0.640087 -0.764588 -0.075465 52 50 51
0.402261 -0.247803 -0.555894 -0.64157 -0.767029 0.00739175 141 142 157
0.397438 -0.242267 -0.556573 -0.747413 -0.610383 0.262308 106 107 118
0.156569 -0.0147177 -0.526381 -0.99153 -0.129223 0.013018 30 31 31
0.354089 -0.179476 0.0468633 -0.655283 -0.752391 0.0671682 247 246 252
0.153822 0.00614854 -0.53941 -0.569907 -0.821075 0.0322869 105 99 95
-0.174822 0.279864 -0.465839 -0.61397 -0.788881 -0.026607 126 114 89
-0.133387 0.246037 -0.564044 -0.60239 -0.788214 -0.125875 14 10 4
-0.179617 0.283589 -0.464891 -0.589974 -0.806424 0.0401394 166 152 123
0.536394 -0.3402 -0.716309 -0.67248 -0.740073 0.00783814 232 228 227
0.531788 -0.400241 -0.544119 -0.317894 0.566467 0.760302 85 85 80
0.526083 -0.306666 -0.628474 -0.867573 0.300394 -0.396334 20 20 20
0.0911506 0.0122071 0.0189895 -0.745206 -0.627637 -0.225256 72 72 84
0.54973 -0.283508 -0.668986 -0.908857 0.403211 0.106772 51 49 55
0.366542 -0.189157 -0.488976 -0.771991 -0.402082 -0.4923 231 198 102
0.415383 -0.252928 -0.569623 -0.442716 -0.866542 -0.23045 84 83 88
0.367337 -0.17892 -0.496481 0.660996 0.23347 0.713145 142 135 60
-0.365389 -0.067138 -0.418784 -0.219335 -0.0143898 0.975543 28 27 29
0.412782 -0.255323 -0.561104 -0.494617 -0.856396 -0.148125 77 77 83
-0.162012 0.241178 -0.140107 -0.682471 -0.730701 0.0175964 231 235 239
0.329391 -0.180071 -0.551062 -0.409719 -0.88361 0.226634 12 11 11
-0.305434 -0.125537 -0.412041 0.0205805 -0.0812886 0.996478 24 24 26
-0.0179775 0.151603 -0.541457 -0.820926 -0.533253 0.20426 118 108 97
0.232658 -0.112097 -0.517467 -0.1993 -0.956018 0.215198 209 209 211
0.154401 -0.0218024 -0.51875 -0.970551 0.0525821 -0.235086 31 31 32
0.158777 0.00315665 -0.547172 -0.926213 -0.300046 -0.228257 37 34 32
0.530943 -0.381805 -0.48633 -0.233243 -0.00519064 0.972405 192 191 191
0.15609 0.00519271 -0.545995 -0.61809 -0.785896 0.0182426 110 102 94
0.122826 0.0342942 -0.537595 -0.667277 -0.744716 -0.0118409 29 20 14
0.375794 -0.255672 -0.922908 -0.717815 0.55461 0.420891 171 170 171
0.10812 0.0445794 -0.532722 -0.600536 -0.798982 0.0313725 139 122 103
-0.307321 0.145389 -0.344724 -0.119439 -0.662262 -0.739691 73 90 96
0.0623098 0.0773739 -0.518776 -0.32105 -0.815239 -0.481988 12 11 9
0.349092 -0.174666 0.0620913 -0.620436 -0.781768 0.0624376 246 245 251
-0.111717 0.225926 -0.477371 -0.608261 -0.786164 0.109384 96 83 63
0.366826 -0.193867 -0.00877815 -0.635336 -0.771854 0.0242957 248 247 252
-0.131604 0.242707 -0.472126 -0.258926 -0.961688 -0.0900697 110 98 83
-0.161509 0.269583 -0.469439 -0.747984 -0.663221 -0.0256385 13 2 6
-0.285318 0.369055 -0.428215 -0.513617 -0.851696 0.103976 134 123 106
-0.00987848 0.0832849 0.0197028 -0.734931 -0.581937 -0.348176 84 83 85
0.498621 -0.435427 -0.478295 -0.696269 0.372734 0.613416 121 121 125
0.493936 -0.433611 -0.478796 -0.743657 0.344126 0.573194 142 146 150
-0.285472 0.130171 -0.399798 -0.315434 -0.217004 0.923802 8 27 64
0.535309 -0.39498 -0.549745 -0.216622 -0.434486 0.874241 94 94 86
0.59911 -0.31608 -0.897678 -0.706549 -0.692228 0.146998 60 62 61
0.372914 -0.202096 -0.661158 -0.837487 -0.530043 -0.132928 74 75 77
0.42254 -0.256402 -0.569491 -0.469571 -0.856484 -0.214333 101 100 105
0.402929 -0.252834 -0.550891 -0.74118 -0.65462 0.148747 140 139 152
-0.0442908 0.102449 -0.259543 -0.610835 -0.788035 0.0766937 229 242 252
0.298798 -0.402056 -0.920952 0.0841539 -0.111247 0.990223 207 207 207
0.505339 -0.0818315 -0.806904 -0.452729 -0.890823 0.0383601 10 10 10
0.335126 -0.177915 -0.581717 -0.164713 -0.986052 0.0238794 76 75 72
-0.0572839 0.183612 -0.441466 -0.652969 -0.755727 -0.0500774 124 113 99
-0.150033 0.232268 -0.0707897 -0.655497 -0.755196 -0.00157811 235 239 241
0.523982 -0.328599 -0.68956 -0.871662 -0.38067 0.308699 191 189 188
0.331264 -0.175476 -0.544526 -0.689779 -0.652021 0.314759 13 11 9
-0.028223 0.104383 0.0208179 0.297843 -0.785977 -0.541784 123 124 128
0.313046 -0.126395 -0.577451 -0.574545 -0.812652 0.0974406 163 146 133
0.0768425 0.0158058 -0.0515245 -0.227257 -0.532714 0.815211 30 35 37
0.223246 -0.102995 -0.510789 -0.852091 -0.455338 0.258085 177 179 182
0.150237 -0.0339203 -0.504428 -0.966967 -0.0246154 -0.253712 30 32 33
0.171088 -0.0565402 -0.0135292 -0.711172 -0.648575 -0.271265 61 59 75
0.124284 0.0290339 -0.529076 -0.715251 -0.698816 0.00852705 91 80 73
0.0736793 0.0799506 -0.530238 -0.559085 -0.809047 -0.181293 13 10 9
0.0715063 0.0778736 -0.524369 -0.522915 -0.81193 -0.25948 10 8 7
-0.0305565 0.149562 -0.487702 -0.783426 -0.558581 -0.272454 18 17 14
-0.287604 0.0560312 -0.399211 0.159193 -0.223019 0.961728 26 29 30
-0.0574878 0.1835 -0.492464 -0.659702 -0.751339 0.0168089 157 145 129
0.0112756 -0.270075 -0.456665 0.194607 -0.107502 0.974972 71 68 81
-0.357228 0.403815 -0.369096 -0.6818 -0.699478 -0.214193 25 26 22
-0.0813017 0.20115 -0.486188 -0.596375 -0.801722 0.0397348 139 127 109
-0.118405 0.23312 -0.474908 -0.583058 -0.795797 0.163558 115 97 74
0.323626 -0.137453 -0.508133 -0.622527 -0.780077 0.06277 153 141 125
-0.0614449 -0.330334 -0.452885 0.0468583 -0.0995469 0.993929 89 69 92
-0.182293 0.0903032 -0.438607 0.525043 0.36082 0.770804 136 137 139
-0.125626 0.239368 -0.473069 -0.527347 -0.836216 0.150492 115 100 78
0.313428 -0.168146 -0.569487 -0.0386402 0.751559 0.658534 89 89 84
-0.165127 0.274543 -0.468396 -0.673547 -0.738315 -0.0350218 30 19 12
-0.169643 0.278708 -0.467537 -0.6335 -0.772975 -0.034449 76 64 43
0.240393 -0.09782 -0.574408 -0.738012 -0.58691 0.33298 221 221 221
-0.171145 0.277795 -0.461305 -0.649169 -0.759182 -0.0471446 35 24 15
-0.135971 0.249023 -0.585063 -0.591976 -0.795501 0.129392 121 119 112
-0.177997 0.284499 -0.45891 -0.631945 -0.774837 0.0165415 64 54 42
0.165112 -0.0647298 -0.21697 -0.616128 -0.787234 0.0254586 242 248 252
-0.251645 0.120357 -0.398649 0.537452 0.587306 0.605159 122 125 128
-0.184839 0.291291 -0.457155 -0.626428 -0.778106 0.0462455 96 86 71
0.100988 0.0191975 -0.0172585 -0.538659 -0.558334 -0.63096 61 61 75
0.108616 -0.228389 -0.500378 0.741381 -0.319776 0.589998 74 67 82
0.095498 -0.137662 -0.482286 0.541305 0.317498 0.778578 142 143 148
-0.223539 0.323563 -0.452103 -0.643819 -0.765172 0.00294092 175 155 126
-0.0509646 0.122793 -0.290798 -0.481994 -0.609954 -0.628997 16 17 21
-0.30173 0.385068 -0.428032 -0.394013 -0.912248 0.112058 18 12 9
0.496159 -0.425627 -0.482632 -0.790367 0.463572 0.400526 143 146 148
0.507822 -0.371886 -0.543697 -0.817316 0.203001 0.539244 183 182 178
0.106889 -0.0140709 -0.229269 -0.621317 -0.781784 0.0527176 105 108 112
0.541099 -0.27554 -0.666429 -0.92148 0.36495 0.132989 55 52 59
-0.363019 -0.0694463 -0.415013 -0.368451 0.0151677 0.929524 27 27 29
0.41069 -0.256513 -0.552962 -0.609827 -0.789547 -0.068749 114 114 124
-0.0422473 0.101447 -0.253071 -0.605684 -0.790147 0.0938894 235 246 252
0.250855 -0.110611 -0.702641 -0.372918 -0.925925 -0.0599636 91 91 94
0.507671 -0.0815324 -0.810012 -0.453216 -0.890492 0.0402481 12 12 12
0.372023 -0.343066 -0.921373 0.0869659 -0.128479 0.987892 199 199 199
0.333341 -0.179239 -0.571928 -0.0776966 -0.996562 0.0287794 41 39 36
-0.056919 0.185222 -0.450026 -0.614856 -0.788034 -0.0308826 86 77 62
-0.149163 0.229295 -0.0635203 -0.626446 -0.779398 -0.0102195 235 239 240
0.330554 -0.175955 -0.548903 -0.443753 -0.849147 0.286414 8 7 5
0.147069 -0.0318893 -0.423417 -0.463905 -0.791452 0.39799 21 22 22
-0.0767766 0.199574 -0.465698 -0.597728 -0.800656 0.04089 104 89 76
0.325415 -0.171554 -0.547585 -0.584062 -0.735847 0.342638 168 164 162
-0.170648 0.278753 -0.48135 -0.615137 -0.783718 0.0859798 164 148 126
0.245366 -0.109962 -0.521139 0.258166 -0.958056 0.124415 226 223 223
0.0806742 0.0205707 -0.0533925 -0.134926 -0.453413 0.881028 52 55 58
0.00313501 0.0677213 -0.133578 -0.591638 -0.806197 -0.00337653 236 240 247
0.263107 -0.322865 -1.15831 -0.282591 0.461656 0.840842 11 11 9
0.2257 -0.0966294 -0.512391 -0.903392 -0.317076 0.288696 150 150 152
0.286511 -0.186885 -1.15462 0.107364 -0.125573 0.986258 172 170 175
0.395739 -0.229626 -0.518128 -0.839405 -0.521039 0.15465 21 18 17
-0.012483 0.0776139 -0.218652 -0.607838 -0.792608 0.0480188 193 198 204
0.14897 -0.0388041 -0.498897 -0.967416 -0.0834732 -0.239037 32 33 35
-0.110058 0.225018 -0.4716 -0.652868 -0.756124 0.0451672 157 141 119
0.313705 -0.0733706 -1.14463 0.0671471 -0.122661 0.990174 151 151 153
-0.244482 0.341303 -0.439267 -0.636338 -0.768144 -0.0709181 105 92 75
0.521858 -0.384871 -0.543805 -0.372911 -0.566638 0.734751 165 164 158
0.509025 -0.365926 -0.54769 -0.838172 0.486779 0.245996 186 186 181
0.397647 -0.236421 -0.913553 -0.504443 0.376105 0.777227 184 184 185
0.0814761 0.0338157 -0.597686 -0.587089 0.568171 0.576635 6 8 7
0.530184 -0.301687 -0.632541 -0.871414 0.346447 -0.347292 20 22 21
0.373119 -0.197321 -0.66866 -0.793003 -0.601725 -0.0952524 65 65 65
0.421971 -0.257635 -0.562071 -0.450975 -0.870395 -0.197572 93 91 98
-0.0852758 0.204822 -0.463236 -0.58498 -0.809028 0.0571958 159 145 125
0.320077 -0.168459 -0.540711 -0.801197 -0.434669 0.411274 45 42 41
-0.139787 0.246036 -0.448711 -0.744509 -0.51048 0.430252 136 124 108
-0.172534 0.279369 -0.473742 -0.597808 -0.801429 0.0183577 149 134 110
0.25072 -0.107069 -0.526966 0.492486 -0.869588 0.0356867 203 199 198
0.0854613 0.0291395 -0.056362 -0.194033 -0.486766 0.85171 51 54 58
0.00412226 0.0713891 -0.142968 -0.614964 -0.788547 -0.00358781 69 71 77
0.22713 -0.0887115 -0.520155 -0.988565 -0.0665647 -0.135311 105 105 106
-0.0427051 0.114803 0.0517693 -0.925008 -0.312698 -0.215822 85 87 86
0.246962 -0.106099 -0.510811 0.200884 -0.952176 0.230233 206 203 202
0.281473 -0.192794 -1.15472 0.0982268 -0.0759111 0.992265 173 171 174
0.395597 -0.222273 -0.525079 -0.923853 -0.372541 0.0877997 23 21 21
0.424098 -0.230146 -0.91502 0.0895243 -0.0393773 0.995206 190 191 193
0.148459 -0.0387146 -0.494451 -0.970762 -0.0874759 -0.223538 31 33 34
-0.279758 0.126215 -0.378882 -0.921024 -0.360139 0.148374 107 112 115
-0.237883 0.333778 -0.440122 -0.647406 -0.760706 -0.0468208 137 120 100
0.257973 -0.101675 -0.549217 0.242939 -0.964178 0.106493 129 128 128
0.497031 -0.418239 -0.487517 -0.906824 0.402089 0.126467 124 126 124
-0.0188572 0.114648 -0.308336 -0.546482 -0.524014 -0.653274 50 50 51
0.572403 -0.402178 -0.948441 0.0111723 -0.240078 0.970689 197 197 197
0.514979 -0.361303 -0.556093 -0.721286 0.691569 -0.038452 156 156 151
0.391929 -0.226244 -0.558695 -0.796744 0.424261 0.430351 50 46 44
0.118099 -0.00662362 0.117104 -0.149405 -0.371614 0.916287 67 67 67
0.261818 -0.0888354 -0.414915 0.0446965 -0.694005 0.718582 49 44 38
0.280263 -0.123109 -0.543076 -0.960233 0.194835 -0.199977 178 158 136
0.29898 -0.125442 -0.557531 -0.222805 -0.9748 -0.0111005 171 163 149
0.255972 -0.10401 -0.533597 0.535112 -0.844433 0.0242511 170 165 163
0.0215556 0.0713353 0.00281299 -0.459178 -0.445661 -0.768467 39 43 46
0.0050694 0.0733155 -0.148373 -0.604784 -0.794901 -0.0486758 59 60 65
-0.326089 -0.207448 -0.412734 0.175978 0.0135263 0.984301 41 41 41
0.229415 -0.0822185 -0.527161 -0.996144 -0.0784771 -0.0392104 80 80 82
0.0996494 0.0163042 -0.0589765 -0.218815 -0.499437 0.838261 46 47 52
0.209668 -0.068906 -0.528063 -0.0219738 -0.87533 -0.483027 37 37 39
0.444688 -0.275237 -0.412337 -0.908584 -0.221122 0.354373 42 40 42
0.106331 0.0446997 -0.495671 -0.617211 -0.73581 -0.278628 14 12 14
0.379913 -0.249013 -0.930602 -0.736765 0.649858 0.186714 137 135 135
0.109484 0.0441501 -0.527052 -0.607607 -0.793354 0.0374708 147 129 110
0.0943604 0.0555538 -0.521936 -0.620832 -0.783469 0.0272846 163 150 135
-0.00634826 0.103454 -0.460981 -0.842308 -0.457876 0.284371 21 20 20
-0.210276 0.310848 -0.46092 -0.665015 -0.74462 -0.0574232 111 98 77
-0.034467 0.139966 -0.472476 -0.826743 -0.496839 -0.263906 15 15 11
0.986303 0.0428296 -0.432206 0.291616 0.274587 0.916276 18 17 16
0.320963 -0.312113 -1.00008 -0.770752 0.625488 0.121267 164 163 161
-0.155639 0.261946 -0.458243 -0.798512 -0.598235 0.0670303 146 137 121
0.501679 -0.43088 -0.480053 -0.779421 0.434154 0.451678 132 133 137
0.5021 -0.41278 -0.494602 -0.928954 0.365276 -0.0601544 161 162 160
0.527331 -0.300592 -0.623594 -0.860528 0.359095 -0.361308 20 21 20
0.551353 -0.27917 -0.671763 -0.913467 0.368213 0.173197 53 50 57
0.391686 -0.219454 -0.566974 -0.749778 0.612053 0.251445 39 36 35
0.40937 -0.247747 -0.535815 -0.755171 -0.638287 0.14935 125 126 142
0.513128 -0.0842441 -0.804204 -0.445974 -0.891617 0.0782683 9 10 10
0.296663 -0.126449 -0.551055 -0.130865 -0.991312 0.0132474 112 105 95
0.48884 -0.403903 -0.60776 -0.698088 0.678642 -0.228293 163 162 162
0.284722 -0.116578 -0.548706 -0.957919 -0.0923405 -0.271781 165 149 131
0.263557 -0.100452 -0.543152 0.278391 -0.941854 0.188174 84 77 75
0.231972 -0.0763555 -0.534576 -0.921616 -0.175065 -0.346374 64 64 65
0.273182 -0.138163 -0.702287 -0.455436 -0.875522 -0.161368 13 13 11
0.215032 -0.0715205 -0.52483 -0.207667 -0.835804 -0.508238 36 37 38
0.153239 -0.0632893 -0.475132 -0.986013 -0.160324 0.0455469 34 34 36
0.132869 -0.00467267 -0.49943 -0.964043 0.263951 0.0308455 46 45 45
0.339957 -0.168386 0.0574792 -0.632154 -0.772997 0.05346 245 244 250
-0.116873 0.232689 -0.469055 -0.631647 -0.774699 0.0294032 159 143 120
0.504435 -0.415707 -0.501718 -0.885373 0.293133 -0.360815 92 93 91
0.269189 -0.115725 -0.249254 -0.646034 -0.763204 0.012627 219 221 235
0.0741562 0.0283325 -0.609643 0.278864 0.618272 0.734829 27 27 27
0.532968 -0.294174 -0.629659 -0.861435 0.392984 -0.321703 31 31 32
-0.306148 0.358819 -0.252426 -0.587037 -0.783806 0.202572 226 230 231
0.535101 -0.297497 -0.636131 -0.87833 0.355897 -0.319177 24 23 23
0.387041 -0.229557 -0.555044 -0.918895 0.309692 0.244381 53 49 48
0.324217 -0.142149 -0.565145 -0.781664 -0.622672 -0.0357821 25 18 17
-0.0314949 0.154949 -0.472695 -0.946178 -0.30954 0.0945109 17 17 17
0.324634 -0.140112 -0.573644 -0.841767 -0.537221 0.0531197 83 73 71
0.483705 -0.407128 -0.601807 -0.692364 0.692954 -0.201116 163 162 162
0.288064 -0.110337 -0.556639 -0.808576 -0.531101 0.253252 157 141 127
-0.0507685 0.125061 -0.0352008 -0.526331 -0.0894525 0.845561 75 78 78
0.4146 -0.154915 -1.13796 -0.739105 0.529644 0.416176 130 127 128
0.269883 -0.0970713 -0.54803 0.061538 -0.969233 0.23833 113 105 101
0.234466 -0.0702847 -0.542545 -0.949353 0.010686 -0.31403 44 43 44
-0.234741 0.302506 -0.199259 -0.631534 -0.774973 0.0241034 220 222 224
0.241385 -0.106615 -0.505552 -0.186187 -0.967273 0.172389 167 165 165
0.218559 -0.0678477 -0.53192 -0.275952 -0.839417 -0.46822 36 37 37
0.134333 0.00218067 -0.505507 -0.980772 0.19072 -0.0413813 35 34 33
0.135498 0.00930292 -0.513265 -0.95531 -0.173848 -0.239081 29 28 27
0.294336 -0.353504 -0.951005 -0.843176 0.536222 0.0389769 174 174 171
0.088396 0.0624735 -0.519751 -0.632307 -0.765838 -0.116959 70 62 55
-0.012315 0.115294 -0.468204 -0.886515 -0.454744 -0.0854356 24 23 19
0.515605 -0.336326 -0.582183 -0.658986 -0.750556 -0.049019 47 45 46
0.188038 -0.038532 -0.458024 0.0923609 0.782004 0.616393 11 11 13
0.506179 -0.329154 -0.579493 -0.359908 -0.932988 -0.000304471 53 53 54
0.326891 -0.160898 -0.0559688 -0.616075 -0.787402 0.0212124 248 247 253
-0.167042 -0.173502 -0.42467 0.120644 -0.229863 0.965716 34 22 34
0.394313 -0.214313 -0.572102 -0.742361 0.619939 0.254119 24 24 22
-0.15127 0.231202 -0.123113 -0.623879 -0.781412 -0.0130537 232 236 240
-0.173871 -0.293566 -0.445262 0.152677 -0.0732561 0.985557 48 24 39
-0.263863 0.0562207 -0.404062 0.435385 0.0859965 0.896128 39 37 41
0.320844 -0.140649 -0.558406 -0.794412 -0.605641 -0.0459175 95 87 85
-0.271559 0.0425555 -0.395202 0.228206 0.0417949 0.972715 27 29 32
0.319947 -0.133408 -0.572329 -0.764222 -0.644915 -0.00702141 92 76 69
0.271513 -0.451007 -0.924836 0.12622 -0.208831 0.969772 212 212 212
0.313794 -0.126622 -0.570652 -0.560076 -0.823339 -0.0918046 49 38 32
0.116191 -0.00376723 0.117451 -0.317296 -0.512369 0.797998 68 68 68
0.499395 -0.395635 -0.617142 -0.731926 0.638339 -0.238344 161 161 161
0.288856 -0.106315 -0.56291 -0.746809 -0.579465 0.326337 171 156 139
0.146585 -0.0409863 -0.485724 -0.993045 0.0237371 -0.115316 30 30 32
0.488741 -0.160205 -0.85013 0.120814 0.023366 0.9924 63 61 66
0.155744 -0.00890455 -0.520414 -0.988706 -0.149565 -0.00955925 33 29 29
0.145609 0.0036992 -0.515092 -0.255609 -0.96257 -0.0901278 63 58 55
-0.0973047 0.191118 -0.101212 -0.664403 -0.747144 0.0185851 229 234 240
0.521545 -0.404157 -0.52285 -0.853705 0.364162 -0.372256 78 78 76
-0.00228223 -0.240397 -0.449179 0.0706372 -0.0809073 0.994215 66 65 75
0.132021 -0.0109593 -0.493156 -0.970592 0.240697 -0.00410296 66 65 65
-0.0127343 0.122093 -0.473512 -0.851784 -0.491075 -0.182507 27 26 22
-0.138433 0.251461 -0.578212 -0.579234 -0.813643 0.0497307 196 195 190
-0.175469 0.280816 -0.451858 -0.677776 -0.733696 -0.0480632 81 73 63
0.396269 -0.219585 -0.565505 -0.831205 0.533886 0.155128 50 46 45
0.53811 -0.336422 -0.342249 -0.644862 0.510795 -0.568543 38 39 38
0.325072 -0.143525 -0.559786 -0.77363 -0.630523 -0.0627523 24 20 19
-0.156398 0.236366 -0.0619367 -0.696322 -0.717729 0.0012788 236 238 240
-0.145853 -0.29114 -0.44701 0.117252 -0.140506 0.983112 49 25 45
0.263646 -0.14782 -0.498053 0.703948 -0.708676 0.0472729 145 112 36
0.0275577 0.088185 -0.0140775 -0.636268 -0.69066 -0.343731 42 43 46
0.258914 -0.345588 -1.15109 -0.597489 0.493731 0.631852 180 179 177
0.235261 -0.0646282 -0.54987 -0.970715 -0.238318 0.0302839 30 30 30
0.213774 -0.0769979 -0.515558 -0.253981 -0.842153 -0.47568 36 36 39
0.145857 -0.239437 -1.14839 0.146184 -0.0389481 0.98849 187 187 187
0.136518 0.0144761 -0.521645 -0.816091 -0.573037 -0.0749979 35 35 33
0.458845 -0.249166 -0.921496 0.0851322 -0.138055 0.986759 175 176 178
0.522428 -0.340968 -0.576073 -0.796787 -0.60426 -0.000868797 91 90 88
0.514076 -0.335282 -0.573216 -0.59689 -0.8022 -0.0140219 49 47 50
-0.24077 0.336637 -0.413098 -0.649109 -0.751997 0.114706 127 112 92
0.043838 0.0921957 -0.535113 0.0333304 -0.900677 -0.43321 15 13 12
0.413394 -0.25847 -0.546794 -0.574019 -0.818239 -0.0314118 182 181 194
-0.240099 0.308511 -0.154835 -0.669418 -0.742299 0.0295446 226 230 231
0.510741 -0.329251 -0.55055 -0.802658 -0.584057 0.120901 42 41 42
-0.132328 -0.128604 -0.429533 0.0959346 -0.112916 0.988962 25 25 32
0.607758 -0.316122 -0.887162 -0.880299 -0.47428 0.0115299 67 67 67
0.406757 -0.249688 -0.54369 -0.77604 -0.619067 0.120491 123 123 140
0.218922 -0.0687917 -0.169142 -0.278473 -0.946242 -0.16456 91 95 106
0.208875 -0.0805345 -0.507397 -0.12324 -0.882444 -0.453987 36 36 39
-0.0636829 0.159666 -0.0606464 -0.925233 -0.356664 0.129362 93 97 99
0.205586 -0.0798698 -0.507036 -0.0947963 -0.890478 -0.445042 37 37 39
0.554558 -0.356382 -0.743312 -0.736382 -0.67034 -0.0915729 234 230 229
0.203215 -0.0826598 -0.500641 -0.0453935 -0.874593 -0.482729 37 37 39
0.157061 0.00426502 -0.524987 -0.870604 -0.491461 -0.0226906 52 44 42
0.54861 -0.359363 -0.47472 -0.646653 -0.648842 0.401054 72 74 76
0.155445 0.00652923 -0.532026 -0.638363 -0.769599 -0.0145141 82 73 69
-0.0624595 0.173883 -0.334789 -0.764873 -0.448585 0.462322 109 107 103
-0.195086 -0.0355912 -0.41575 0.206892 0.21354 0.954775 45 45 51
0.151162 0.00818736 -0.530493 -0.321104 -0.947028 0.00559156 79 70 65
0.134411 -0.0106506 -0.4952 0.8453 -0.52982 0.0689794 40 37 38
-0.23796 -0.0102989 -0.407703 0.149699 -0.12359 0.980977 44 42 50
0.527092 -0.398599 -0.528981 -0.844504 0.395894 -0.360667 95 96 94
0.559797 -0.322238 -0.345129 0.179893 -0.647423 0.740596 25 28 29
0.4105 -0.246756 -0.913884 -0.00924761 -0.0852914 0.996313 187 187 188
-0.0171686 0.141064 -0.505207 -0.891532 -0.411176 -0.190013 19 17 13
